NORM_ASCII 
  2087  4000 
3 261 302 336 
3 282 261 197 
3 245 282 197 
3 413 450 475 
3 450 484 475 
3 363 413 429 
3 363 429 336 
3 513 360 388 
3 388 272 254 
3 212 195 292 
3 292 195 140 
3 126 133 195 
3 195 133 142 
3 195 142 140 
3 97 68 78 
3 133 97 78 
3 137 164 153 
3 554 599 527 
3 527 597 484 
3 527 484 450 
3 484 597 571 
3 1412 1382 1396 
3 1410 1396 1409 
3 1389 1382 1412 
3 1404 1417 1415 
3 1414 1415 1417 
3 1343 1389 1379 
3 1303 1330 1314 
3 1330 1350 1362 
3 1362 1365 1392 
3 1330 1344 1314 
3 1344 1330 1362 
3 1247 1276 1245 
3 1288 1283 1276 
3 153 161 107 
3 161 197 166 
3 161 166 144 
3 107 161 144 
3 261 336 300 
3 300 336 364 
3 484 533 475 
3 413 475 429 
3 475 533 489 
3 475 489 429 
3 336 429 364 
3 254 212 292 
3 133 78 82 
3 133 82 142 
3 68 48 54 
3 78 68 54 
3 137 48 68 
3 644 674 689 
3 484 571 533 
3 533 571 580 
3 533 580 531 
3 531 580 643 
3 583 643 674 
3 583 674 644 
3 1425 1389 1412 
3 1412 1396 1410 
3 1410 1409 1443 
3 1443 1409 1442 
3 1409 1414 1442 
3 1365 1343 1379 
3 1392 1365 1424 
3 1344 1362 1370 
3 1288 1314 1315 
3 1315 1283 1288 
3 1276 1283 1289 
3 1245 1276 1289 
3 513 388 389 
3 153 107 71 
3 166 197 300 
3 197 261 300 
3 107 144 67 
3 144 109 67 
3 280 300 364 
3 364 387 349 
3 280 364 349 
3 533 531 489 
3 364 429 416 
3 364 416 387 
3 416 429 489 
3 388 254 389 
3 389 254 292 
3 78 59 82 
3 140 142 82 
3 137 153 48 
3 153 71 48 
3 78 54 59 
3 531 643 583 
3 1379 1389 1408 
3 1408 1389 1425 
3 1425 1412 1444 
3 1444 1412 1484 
3 1412 1410 1484 
3 1414 1417 1448 
3 1460 1414 1448 
3 1408 1365 1379 
3 1362 1392 1387 
3 1392 1424 1426 
3 1388 1392 1426 
3 1392 1388 1387 
3 1304 1315 1322 
3 1304 1283 1315 
3 1283 1304 1289 
3 1289 1287 1245 
3 166 300 218 
3 218 300 250 
3 144 166 127 
3 109 144 127 
3 166 218 127 
3 60 107 67 
3 67 109 87 
3 60 67 39 
3 39 67 87 
3 280 250 300 
3 250 280 349 
3 387 416 421 
3 349 387 380 
3 387 421 380 
3 489 531 508 
3 531 583 508 
3 140 82 124 
3 48 71 42 
3 54 48 42 
3 59 54 36 
3 54 42 36 
3 1408 1425 1419 
3 1419 1425 1444 
3 1444 1484 1462 
3 1410 1443 1484 
3 1484 1443 1472 
3 1443 1442 1472 
3 1442 1414 1460 
3 1424 1365 1408 
3 1362 1387 1370 
3 1388 1426 1413 
3 1315 1314 1357 
3 1314 1344 1357 
3 1357 1344 1370 
3 1316 1304 1322 
3 1322 1315 1357 
3 1304 1287 1289 
3 1245 1287 1248 
3 1269 1248 1287 
3 71 107 60 
3 71 60 42 
3 109 138 87 
3 109 127 138 
3 127 218 250 
3 42 60 39 
3 87 138 129 
3 87 129 73 
3 39 87 73 
3 250 349 257 
3 226 250 257 
3 349 380 257 
3 421 416 508 
3 508 463 421 
3 421 463 417 
3 380 421 417 
3 370 380 417 
3 257 380 370 
3 508 583 498 
3 416 489 508 
3 59 36 45 
3 82 59 45 
3 51 82 45 
3 124 82 51 
3 36 42 29 
3 45 36 31 
3 36 29 31 
3 1408 1419 1424 
3 1419 1452 1424 
3 1463 1419 1444 
3 1463 1444 1462 
3 1462 1484 1534 
3 1463 1462 1524 
3 1462 1534 1524 
3 1442 1460 1472 
3 1370 1387 1383 
3 1397 1387 1388 
3 1383 1387 1397 
3 1426 1424 1438 
3 1397 1388 1413 
3 1296 1287 1304 
3 1316 1296 1304 
3 1277 1269 1287 
3 1296 1277 1287 
3 1229 1248 1269 
3 1246 1229 1269 
3 1277 1246 1269 
3 127 250 226 
3 138 127 173 
3 138 173 129 
3 127 226 173 
3 42 39 29 
3 129 136 73 
3 73 136 89 
3 39 73 40 
3 226 294 215 
3 226 257 294 
3 294 257 370 
3 508 498 463 
3 463 498 479 
3 417 463 479 
3 370 417 371 
3 370 371 325 
3 294 370 325 
3 498 583 548 
3 45 57 51 
3 160 124 51 
3 31 29 33 
3 45 31 38 
3 57 45 38 
3 31 33 38 
3 1424 1452 1438 
3 1419 1463 1452 
3 1452 1463 1513 
3 1513 1463 1602 
3 1602 1463 1524 
3 1534 1484 1547 
3 1484 1472 1547 
3 1547 1472 1460 
3 1487 1499 1448 
3 1372 1370 1383 
3 1426 1438 1459 
3 1397 1413 1431 
3 1431 1413 1454 
3 1413 1426 1454 
3 1430 1397 1431 
3 1395 1383 1397 
3 1395 1397 1430 
3 1454 1426 1459 
3 1322 1357 1352 
3 1352 1357 1372 
3 1357 1370 1372 
3 1305 1296 1316 
3 1340 1316 1322 
3 1305 1316 1340 
3 1280 1277 1296 
3 1223 1246 1277 
3 1280 1223 1277 
3 1246 1219 1229 
3 173 226 215 
3 129 173 136 
3 29 39 33 
3 73 56 40 
3 56 73 89 
3 56 89 72 
3 40 56 43 
3 56 72 43 
3 89 136 104 
3 39 40 33 
3 215 294 270 
3 294 325 312 
3 294 312 270 
3 479 498 534 
3 479 534 510 
3 417 479 510 
3 371 417 460 
3 417 510 460 
3 325 371 442 
3 51 77 160 
3 160 77 163 
3 57 38 61 
3 49 33 43 
3 38 33 49 
3 38 49 61 
3 1452 1513 1494 
3 1438 1452 1494 
3 1534 1547 1613 
3 1524 1534 1602 
3 1602 1534 1613 
3 1547 1460 1553 
3 1553 1460 1448 
3 1438 1494 1459 
3 1402 1395 1430 
3 1459 1494 1493 
3 1340 1322 1352 
3 1278 1280 1296 
3 1305 1278 1296 
3 1305 1340 1361 
3 1340 1352 1374 
3 1361 1340 1374 
3 1223 1217 1246 
3 1233 1223 1280 
3 1278 1233 1280 
3 136 173 188 
3 136 188 147 
3 104 136 123 
3 136 147 123 
3 173 215 188 
3 33 40 43 
3 43 72 90 
3 49 43 90 
3 89 104 72 
3 104 123 116 
3 72 104 116 
3 215 270 246 
3 270 312 298 
3 246 270 298 
3 534 498 548 
3 534 570 510 
3 442 371 460 
3 312 325 339 
3 339 325 442 
3 312 339 298 
3 51 57 77 
3 57 61 77 
3 160 163 211 
3 61 49 74 
3 61 74 77 
3 1494 1513 1601 
3 1493 1494 1601 
3 1513 1602 1601 
3 1613 1547 1632 
3 1547 1553 1632 
3 1602 1613 1617 
3 1553 1448 1499 
3 1395 1372 1383 
3 1431 1454 1476 
3 1430 1431 1476 
3 1454 1459 1500 
3 1476 1454 1500 
3 1385 1395 1402 
3 1398 1385 1402 
3 1398 1402 1436 
3 1402 1430 1436 
3 1459 1493 1527 
3 1459 1527 1518 
3 1500 1459 1518 
3 1374 1352 1372 
3 1374 1372 1385 
3 1385 1372 1395 
3 1294 1278 1305 
3 1329 1294 1305 
3 1223 1208 1217 
3 1246 1217 1219 
3 188 215 246 
3 90 72 116 
3 116 123 184 
3 116 184 112 
3 116 112 90 
3 188 246 189 
3 246 298 189 
3 189 298 283 
3 468 510 566 
3 510 570 566 
3 460 510 468 
3 442 460 468 
3 339 442 381 
3 381 442 434 
3 434 442 468 
3 298 339 342 
3 339 381 342 
3 77 92 163 
3 163 92 175 
3 211 163 175 
3 77 74 92 
3 74 49 96 
3 92 74 121 
3 121 74 135 
3 135 74 96 
3 1493 1601 1608 
3 1601 1602 1631 
3 1632 1553 1652 
3 1617 1613 1707 
3 1707 1613 1632 
3 1631 1602 1617 
3 1553 1499 1652 
3 1487 1594 1499 
3 1652 1499 1594 
3 1594 1487 1505 
3 1451 1430 1476 
3 1436 1430 1451 
3 1398 1436 1429 
3 1429 1436 1435 
3 1493 1608 1527 
3 1518 1527 1608 
3 1361 1374 1381 
3 1381 1374 1385 
3 1329 1305 1361 
3 1293 1278 1294 
3 1257 1233 1278 
3 1257 1278 1293 
3 1220 1208 1223 
3 1233 1220 1223 
3 1220 1191 1208 
3 147 188 208 
3 208 188 189 
3 49 90 96 
3 90 112 145 
3 112 184 143 
3 143 184 210 
3 145 112 143 
3 283 298 342 
3 283 342 350 
3 566 570 587 
3 468 566 545 
3 434 468 545 
3 350 342 411 
3 92 121 171 
3 145 135 96 
3 121 135 168 
3 135 145 168 
3 90 145 96 
3 1608 1601 1622 
3 1601 1631 1622 
3 1707 1632 1652 
3 1631 1617 1700 
3 1622 1631 1700 
3 1505 1487 1465 
3 1436 1451 1441 
3 1497 1476 1500 
3 1451 1476 1497 
3 1500 1518 1511 
3 1497 1500 1530 
3 1500 1511 1530 
3 1381 1385 1398 
3 1436 1441 1435 
3 1518 1608 1560 
3 1219 1167 1229 
3 1310 1294 1329 
3 1293 1294 1310 
3 1329 1361 1369 
3 1369 1361 1381 
3 1162 1191 1220 
3 1208 1127 1217 
3 1217 1127 1219 
3 1219 1127 1164 
3 1219 1164 1167 
3 123 147 208 
3 123 208 184 
3 145 143 154 
3 184 208 210 
3 210 208 268 
3 210 268 252 
3 143 210 224 
3 210 252 224 
3 189 283 208 
3 283 350 278 
3 208 283 278 
3 350 372 278 
3 381 434 396 
3 396 434 545 
3 473 396 545 
3 342 381 396 
3 342 396 411 
3 350 411 372 
3 372 411 392 
3 92 171 175 
3 145 154 168 
3 1560 1608 1622 
3 1700 1617 1757 
3 1505 1465 1544 
3 1544 1465 1468 
3 1594 1505 1570 
3 1544 1570 1505 
3 1451 1497 1506 
3 1441 1451 1506 
3 1405 1381 1398 
3 1405 1398 1429 
3 1434 1405 1429 
3 1434 1429 1491 
3 1429 1435 1491 
3 1491 1435 1507 
3 1518 1560 1565 
3 1518 1565 1511 
3 1369 1381 1405 
3 1310 1329 1369 
3 1257 1237 1233 
3 1237 1220 1233 
3 1191 1160 1208 
3 1208 1160 1127 
3 1162 1137 1191 
3 154 143 194 
3 154 194 168 
3 252 268 304 
3 224 252 236 
3 236 252 317 
3 252 304 353 
3 252 353 317 
3 143 224 194 
3 208 278 268 
3 268 278 304 
3 545 566 587 
3 473 545 593 
3 545 587 593 
3 411 396 473 
3 411 473 448 
3 411 448 392 
3 408 392 454 
3 372 392 408 
3 211 175 235 
3 171 121 192 
3 121 168 187 
3 192 121 187 
3 168 194 220 
3 168 220 187 
3 1622 1786 1560 
3 1617 1707 1759 
3 1757 1617 1759 
3 1622 1700 1751 
3 1700 1757 1751 
3 1640 1594 1570 
3 1512 1544 1468 
3 1512 1468 1474 
3 1578 1544 1512 
3 1570 1544 1612 
3 1612 1544 1578 
3 1528 1435 1441 
3 1531 1441 1506 
3 1497 1530 1576 
3 1576 1530 1620 
3 1367 1369 1405 
3 1391 1405 1434 
3 1423 1391 1434 
3 1507 1435 1528 
3 1391 1367 1405 
3 1261 1237 1257 
3 1237 1188 1220 
3 1191 1137 1160 
3 1188 1162 1220 
3 1127 1143 1164 
3 1164 1143 1167 
3 194 224 236 
3 194 236 220 
3 220 236 253 
3 236 317 293 
3 253 236 293 
3 317 353 356 
3 353 304 390 
3 356 353 390 
3 293 317 356 
3 278 372 304 
3 593 587 612 
3 509 448 473 
3 392 448 509 
3 372 408 304 
3 304 408 390 
3 175 171 235 
3 211 235 321 
3 235 171 192 
3 235 192 271 
3 192 187 231 
3 271 192 231 
3 187 220 231 
3 1622 1751 1786 
3 1560 1786 1758 
3 1707 1652 1768 
3 1759 1707 1768 
3 1786 1751 1859 
3 1751 1757 1859 
3 1757 1759 1822 
3 1759 1768 1822 
3 1757 1858 1859 
3 1757 1822 1858 
3 1594 1640 1652 
3 1640 1768 1652 
3 1586 1578 1512 
3 1586 1512 1522 
3 1512 1474 1492 
3 1522 1512 1492 
3 1675 1612 1578 
3 1648 1675 1578 
3 1648 1578 1586 
3 1658 1640 1570 
3 1658 1570 1612 
3 1658 1612 1675 
3 1528 1441 1531 
3 1552 1528 1531 
3 1531 1506 1542 
3 1506 1497 1576 
3 1565 1560 1651 
3 1565 1651 1624 
3 1565 1624 1643 
3 1511 1565 1643 
3 1530 1511 1643 
3 1506 1576 1542 
3 1530 1643 1620 
3 1423 1434 1458 
3 1458 1434 1491 
3 1560 1758 1651 
3 1290 1257 1293 
3 1290 1293 1339 
3 1293 1310 1339 
3 1290 1261 1257 
3 1207 1188 1237 
3 1086 1103 1160 
3 1137 1086 1160 
3 1160 1103 1127 
3 1103 1143 1127 
3 1162 1120 1137 
3 231 220 253 
3 293 356 315 
3 356 390 402 
3 315 356 399 
3 356 402 477 
3 399 356 477 
3 390 408 402 
3 473 573 509 
3 473 593 573 
3 392 509 455 
3 392 455 454 
3 408 454 402 
3 454 455 485 
3 235 279 321 
3 231 253 273 
3 231 273 295 
3 271 231 295 
3 1786 1820 1758 
3 1786 1859 1820 
3 1768 1795 1822 
3 1648 1586 1713 
3 1713 1586 1582 
3 1582 1586 1522 
3 1582 1522 1569 
3 1522 1492 1567 
3 1569 1522 1567 
3 1729 1675 1648 
3 1737 1729 1648 
3 1737 1648 1713 
3 1729 1658 1675 
3 1552 1507 1528 
3 1552 1531 1542 
3 1624 1651 1678 
3 1678 1651 1702 
3 1542 1576 1628 
3 1576 1620 1671 
3 1628 1576 1671 
3 1671 1620 1693 
3 1620 1643 1693 
3 1469 1458 1491 
3 1469 1491 1519 
3 1519 1491 1545 
3 1545 1491 1507 
3 1367 1310 1369 
3 1371 1310 1367 
3 1384 1367 1391 
3 1384 1391 1423 
3 1274 1261 1290 
3 1183 1237 1261 
3 1207 1183 1188 
3 1183 1155 1188 
3 1103 1076 1143 
3 1143 1076 1079 
3 1120 1096 1137 
3 1096 1086 1137 
3 1155 1120 1188 
3 1188 1120 1162 
3 1155 1138 1120 
3 1143 1111 1167 
3 253 293 290 
3 293 315 290 
3 273 253 290 
3 315 348 290 
3 315 399 348 
3 348 399 432 
3 432 399 477 
3 477 402 465 
3 402 454 476 
3 455 509 578 
3 509 573 578 
3 454 485 476 
3 476 485 546 
3 235 271 310 
3 310 271 295 
3 273 290 319 
3 295 273 319 
3 1858 1822 1895 
3 1859 1858 1913 
3 1820 1859 1913 
3 1858 1895 1913 
3 1768 1640 1795 
3 1805 1795 1640 
3 1805 1640 1795 
3 1795 1640 1805 
3 1805 1640 1658 
3 1736 1713 1676 
3 1713 1582 1615 
3 1676 1713 1615 
3 1615 1582 1569 
3 1629 1615 1569 
3 1629 1569 1567 
3 1873 1797 1737 
3 1753 1873 1737 
3 1797 1729 1737 
3 1753 1737 1713 
3 1736 1753 1713 
3 1805 1658 1797 
3 1797 1658 1729 
3 1575 1507 1552 
3 1618 1552 1542 
3 1618 1575 1552 
3 1758 1783 1651 
3 1651 1783 1702 
3 1643 1624 1687 
3 1624 1678 1687 
3 1643 1687 1693 
3 1659 1542 1628 
3 1545 1507 1657 
3 1657 1507 1575 
3 1339 1310 1371 
3 1183 1207 1237 
3 1086 1075 1103 
3 1103 1075 1076 
3 1075 1040 1076 
3 1076 1040 1079 
3 1079 1111 1143 
3 1120 1138 1096 
3 290 348 319 
3 348 432 487 
3 432 477 487 
3 402 476 465 
3 465 476 550 
3 573 593 626 
3 578 573 626 
3 626 593 612 
3 455 578 485 
3 546 485 602 
3 279 235 310 
3 295 319 384 
3 310 295 401 
3 401 295 384 
3 1783 1758 1820 
3 1895 1822 1795 
3 1913 1895 1921 
3 1774 1802 1736 
3 1802 1825 1736 
3 1825 1753 1736 
3 1736 1676 1722 
3 1774 1736 1722 
3 1722 1676 1697 
3 1697 1676 1629 
3 1676 1615 1629 
3 1697 1629 1653 
3 1653 1629 1616 
3 1629 1567 1616 
3 1857 1873 1753 
3 1873 1893 1797 
3 1825 1857 1753 
3 1702 1783 1785 
3 1785 1783 1927 
3 1687 1678 1711 
3 1678 1702 1704 
3 1711 1678 1704 
3 1704 1702 1785 
3 1618 1542 1659 
3 1628 1671 1731 
3 1731 1671 1741 
3 1671 1693 1741 
3 1693 1687 1784 
3 1741 1693 1784 
3 1446 1384 1423 
3 1446 1423 1457 
3 1457 1423 1458 
3 1457 1458 1469 
3 1519 1545 1610 
3 1610 1545 1657 
3 1339 1371 1376 
3 1371 1367 1384 
3 1411 1371 1384 
3 1411 1384 1446 
3 1244 1261 1274 
3 1212 1183 1261 
3 1183 1158 1155 
3 1158 1138 1155 
3 1037 1040 1075 
3 1037 1011 1040 
3 1040 1024 1000 
3 1079 1040 1000 
3 1079 1000 1077 
3 1111 1079 1077 
3 1138 1052 1096 
3 319 348 400 
3 400 348 487 
3 400 487 452 
3 487 521 452 
3 487 477 542 
3 487 542 521 
3 477 465 542 
3 550 476 546 
3 550 596 590 
3 465 550 590 
3 550 546 596 
3 612 648 626 
3 485 578 602 
3 602 578 642 
3 578 626 642 
3 321 279 418 
3 279 310 418 
3 384 319 400 
3 384 400 480 
3 401 384 480 
3 437 401 504 
3 401 480 504 
3 393 401 437 
3 393 310 401 
3 418 310 393 
3 1895 1795 1900 
3 1795 1805 1900 
3 1820 1913 1927 
3 1913 1954 1927 
3 1913 1921 1954 
3 1783 1820 1927 
3 1921 1895 1900 
3 1914 1900 1805 
3 1805 1893 1871 
3 1871 1914 1805 
3 1893 1805 1797 
3 1846 1825 1802 
3 1846 1802 1774 
3 1815 1846 1774 
3 1774 1734 1762 
3 1815 1774 1762 
3 1774 1722 1734 
3 1887 1857 1825 
3 1882 1887 1825 
3 1846 1882 1825 
3 1734 1722 1697 
3 1734 1697 1723 
3 1723 1697 1653 
3 1857 1893 1873 
3 1718 1657 1575 
3 1785 1927 1930 
3 1687 1711 1784 
3 1711 1704 1735 
3 1711 1735 1789 
3 1784 1711 1789 
3 1742 1575 1618 
3 1742 1618 1659 
3 1628 1731 1747 
3 1659 1628 1747 
3 1742 1659 1747 
3 1457 1469 1473 
3 1473 1469 1519 
3 1610 1473 1519 
3 1743 1610 1657 
3 1743 1657 1718 
3 1380 1371 1411 
3 1274 1290 1339 
3 1286 1244 1274 
3 1244 1212 1261 
3 1157 1095 1158 
3 1158 1095 1138 
3 1096 1052 1086 
3 1052 1075 1086 
3 1033 1037 1075 
3 1075 1052 1033 
3 1011 967 941 
3 1037 967 1011 
3 1011 941 1024 
3 1040 1011 1024 
3 1095 1050 1045 
3 1095 1045 1138 
3 1138 1045 1052 
3 400 452 480 
3 452 521 541 
3 501 452 541 
3 542 465 590 
3 542 590 607 
3 551 542 607 
3 521 542 551 
3 546 602 665 
3 596 546 665 
3 590 596 659 
3 626 648 681 
3 626 681 642 
3 642 681 671 
3 602 642 665 
3 665 642 671 
3 321 418 431 
3 480 501 504 
3 393 437 517 
3 437 504 562 
3 504 501 562 
3 418 393 535 
3 535 393 517 
3 1927 1954 1930 
3 1871 1897 1914 
3 1871 1888 1897 
3 1869 1882 1846 
3 1869 1846 1815 
3 1818 1869 1815 
3 1818 1815 1788 
3 1788 1815 1762 
3 1750 1788 1762 
3 1762 1734 1723 
3 1750 1762 1723 
3 1908 1887 1882 
3 1887 1908 1857 
3 1892 1908 1882 
3 1892 1882 1869 
3 1685 1723 1653 
3 1857 1912 1893 
3 1908 1912 1857 
3 1912 1888 1893 
3 1888 1871 1893 
3 1718 1575 1742 
3 1785 1930 1911 
3 1704 1785 1860 
3 1785 1911 1860 
3 1911 1930 1957 
3 1718 1742 1755 
3 1770 1742 1747 
3 1862 1755 1742 
3 1862 1742 1770 
3 1747 1731 1792 
3 1792 1731 1781 
3 1731 1741 1781 
3 1781 1741 1784 
3 1446 1457 1473 
3 1473 1610 1525 
3 1701 1525 1610 
3 1701 1610 1743 
3 1743 1718 1780 
3 1780 1718 1755 
3 1328 1274 1339 
3 1197 1212 1244 
3 1212 1182 1183 
3 1197 1182 1212 
3 1183 1182 1158 
3 1157 1114 1095 
3 1182 1157 1158 
3 1007 993 1033 
3 1033 993 1037 
3 1007 1033 1052 
3 1037 925 967 
3 993 925 1037 
3 1024 941 968 
3 1024 968 1000 
3 1000 963 1030 
3 1000 1030 1077 
3 1114 1050 1095 
3 1050 1034 1015 
3 1050 1015 1045 
3 1045 1015 1014 
3 1045 1014 1052 
3 480 452 501 
3 501 541 581 
3 551 607 617 
3 521 551 541 
3 596 665 659 
3 590 659 633 
3 671 681 698 
3 431 418 535 
3 517 437 562 
3 562 501 614 
3 1900 1914 1960 
3 1921 1900 1960 
3 1954 1921 1960 
3 1930 1954 1957 
3 1957 1954 1960 
3 1960 1914 1897 
3 1904 1888 1912 
3 1897 1888 1904 
3 1865 1892 1869 
3 1839 1865 1869 
3 1839 1869 1818 
3 1823 1839 1818 
3 1823 1818 1806 
3 1806 1818 1788 
3 1685 1750 1723 
3 1750 1685 1788 
3 1907 1915 1908 
3 1892 1907 1908 
3 1884 1907 1892 
3 1915 1912 1908 
3 1915 1904 1912 
3 1879 1860 1911 
3 1735 1704 1828 
3 1784 1789 1811 
3 1704 1860 1828 
3 1770 1747 1792 
3 1862 1770 1829 
3 1829 1770 1827 
3 1827 1770 1792 
3 1864 1755 1862 
3 1835 1862 1829 
3 1445 1411 1446 
3 1471 1446 1473 
3 1471 1473 1525 
3 1611 1525 1701 
3 1701 1743 1845 
3 1845 1743 1780 
3 1328 1339 1376 
3 1179 1114 1157 
3 1157 1182 1179 
3 1056 1050 1114 
3 1179 1182 1197 
3 1052 1014 1007 
3 993 945 925 
3 925 916 967 
3 967 916 941 
3 916 880 941 
3 968 941 951 
3 880 951 941 
3 1000 968 951 
3 1000 951 963 
3 1056 1034 1050 
3 1034 972 1015 
3 1015 972 990 
3 1015 990 1014 
3 990 1007 1014 
3 501 581 614 
3 581 541 617 
3 581 617 636 
3 607 590 633 
3 541 551 617 
3 617 607 633 
3 665 671 696 
3 659 665 696 
3 671 698 696 
3 535 517 618 
3 618 517 562 
3 1957 1960 1897 
3 1865 1884 1892 
3 1849 1884 1865 
3 1849 1865 1839 
3 1849 1839 1826 
3 1826 1839 1823 
3 1787 1806 1788 
3 1739 1787 1788 
3 1739 1788 1710 
3 1788 1685 1710 
3 1872 1915 1907 
3 1884 1872 1907 
3 1883 1872 1884 
3 1957 1903 1911 
3 1911 1903 1879 
3 1898 1903 1957 
3 1957 1897 1898 
3 1735 1828 1817 
3 1789 1735 1817 
3 1789 1817 1811 
3 1781 1811 1833 
3 1792 1781 1833 
3 1811 1781 1784 
3 1835 1829 1866 
3 1866 1829 1827 
3 1827 1792 1833 
3 1864 1780 1755 
3 1965 1780 1864 
3 1965 1864 1919 
3 1864 1862 1899 
3 1919 1864 1899 
3 1899 1862 1940 
3 1862 1835 1940 
3 1471 1445 1446 
3 1380 1411 1445 
3 1637 1611 1701 
3 1523 1471 1525 
3 1523 1525 1611 
3 1637 1701 1845 
3 1814 1637 1845 
3 1845 1780 1965 
3 1323 1286 1274 
3 1264 1286 1323 
3 1264 1244 1286 
3 1210 1197 1244 
3 1179 1145 1114 
3 1082 1065 1114 
3 1145 1082 1114 
3 1114 1065 1056 
3 1065 998 1056 
3 998 1012 1056 
3 1056 1012 1034 
3 1204 1179 1197 
3 973 945 993 
3 1007 973 993 
3 945 906 925 
3 925 906 916 
3 880 871 951 
3 1034 1012 972 
3 1007 979 973 
3 1007 990 979 
3 581 636 620 
3 581 620 614 
3 617 633 666 
3 636 617 666 
3 633 659 693 
3 693 659 696 
3 618 562 614 
3 705 614 620 
3 1897 1904 1898 
3 1898 1904 1896 
3 1896 1904 1915 
3 1832 1883 1884 
3 1832 1884 1849 
3 1804 1832 1849 
3 1804 1849 1826 
3 1800 1804 1826 
3 1800 1826 1810 
3 1810 1826 1823 
3 1810 1823 1806 
3 1773 1810 1806 
3 1773 1806 1787 
3 1773 1787 1739 
3 1872 1896 1915 
3 1824 1872 1883 
3 1824 1883 1832 
3 1860 1870 1828 
3 1870 1860 1879 
3 1828 1847 1817 
3 1828 1870 1847 
3 1817 1821 1811 
3 1827 1833 1875 
3 1835 1866 1953 
3 1958 1835 1953 
3 1866 1827 1875 
3 1919 1899 1977 
3 1977 1899 1988 
3 1899 1940 1988 
3 1958 1940 1835 
3 1449 1445 1471 
3 1501 1523 1611 
3 1656 1501 1611 
3 1656 1611 1637 
3 1449 1471 1523 
3 1901 1637 1814 
3 1997 1814 1845 
3 1997 1845 1965 
3 1328 1376 1403 
3 1264 1210 1244 
3 1145 1179 1204 
3 1082 1029 1065 
3 1065 1029 998 
3 1204 1197 1210 
3 973 907 945 
3 945 907 906 
3 906 867 916 
3 916 867 880 
3 900 972 1012 
3 972 900 979 
3 972 979 990 
3 705 620 679 
3 666 633 693 
3 686 666 693 
3 636 666 686 
3 636 686 620 
3 696 698 725 
3 724 696 725 
3 693 696 724 
3 1903 1898 1896 
3 1790 1824 1832 
3 1790 1832 1804 
3 1772 1790 1804 
3 1772 1804 1800 
3 1778 1772 1800 
3 1778 1800 1798 
3 1798 1800 1810 
3 1791 1810 1773 
3 1740 1791 1773 
3 1740 1773 1744 
3 1744 1773 1739 
3 1744 1739 1667 
3 1739 1710 1667 
3 1824 1874 1872 
3 1824 1816 1874 
3 1769 1816 1824 
3 1790 1769 1824 
3 1874 1879 1903 
3 1870 1879 1867 
3 1874 1867 1879 
3 1853 1817 1847 
3 1870 1867 1847 
3 1847 1867 1808 
3 1847 1808 1853 
3 1853 1821 1817 
3 1821 1833 1811 
3 1875 1833 1881 
3 1833 1821 1881 
3 1953 1925 1950 
3 1953 1866 1925 
3 2005 1919 1977 
3 2005 1977 2001 
3 2001 1977 1988 
3 2001 1988 1992 
3 1988 1940 1958 
3 1988 1958 1992 
3 1449 1418 1445 
3 1636 1501 1656 
3 1636 1656 1836 
3 1836 1656 1901 
3 1656 1637 1901 
3 1376 1371 1380 
3 1403 1376 1380 
3 1418 1380 1445 
3 1418 1403 1380 
3 1279 1264 1323 
3 1202 1210 1264 
3 1231 1202 1264 
3 1231 1264 1279 
3 1204 1169 1145 
3 1109 1082 1145 
3 1081 971 1029 
3 1081 1029 1082 
3 1109 1081 1082 
3 1029 928 998 
3 998 928 1012 
3 1012 928 970 
3 928 894 970 
3 970 894 917 
3 1012 970 900 
3 979 907 973 
3 907 867 906 
3 867 856 880 
3 880 856 855 
3 880 855 871 
3 871 903 951 
3 970 917 900 
3 620 686 679 
3 719 679 686 
3 686 693 741 
3 693 724 733 
3 725 743 724 
3 679 719 705 
3 1896 1874 1903 
3 1874 1896 1872 
3 1746 1769 1790 
3 1746 1790 1772 
3 1748 1746 1772 
3 1748 1772 1778 
3 1738 1748 1778 
3 1776 1778 1798 
3 1738 1778 1776 
3 1798 1810 1791 
3 1712 1740 1744 
3 1708 1740 1712 
3 1708 1749 1740 
3 1749 1791 1740 
3 1834 1867 1874 
3 1867 1834 1782 
3 1808 1821 1853 
3 1782 1808 1867 
3 1866 1875 1925 
3 1925 1875 1881 
3 1881 1821 1890 
3 1962 1950 1925 
3 1920 1962 1925 
3 1953 1950 1985 
3 1962 1985 1950 
3 1992 1958 1953 
3 1985 1992 1953 
3 1997 1965 2008 
3 2008 1965 1919 
3 2008 1919 2005 
3 2005 2001 2019 
3 2001 1992 2021 
3 2019 2001 2021 
3 1992 1985 2002 
3 2002 2021 1992 
3 1573 1501 1636 
3 1573 1636 1705 
3 1705 1636 1836 
3 1705 1836 1851 
3 1851 1836 1936 
3 1936 1836 1901 
3 1501 1449 1523 
3 1901 1814 1993 
3 1936 1901 1993 
3 1993 1814 1997 
3 1323 1274 1328 
3 1202 1204 1210 
3 1333 1279 1323 
3 1323 1328 1353 
3 1109 1145 1169 
3 1142 1109 1169 
3 1117 1081 1109 
3 971 928 1029 
3 1081 1005 971 
3 1035 1081 1117 
3 1142 1117 1109 
3 928 919 894 
3 919 870 894 
3 894 824 917 
3 1169 1204 1202 
3 907 847 867 
3 847 825 867 
3 867 825 856 
3 871 855 862 
3 917 881 900 
3 824 865 917 
3 917 865 881 
3 979 900 878 
3 900 881 878 
3 719 686 741 
3 741 693 733 
3 762 741 733 
3 724 743 733 
3 1715 1769 1746 
3 1715 1746 1690 
3 1690 1746 1748 
3 1714 1690 1748 
3 1714 1748 1738 
3 1728 1738 1776 
3 1716 1728 1776 
3 1776 1798 1791 
3 1716 1776 1749 
3 1749 1776 1791 
3 1712 1744 1667 
3 1635 1712 1667 
3 1683 1708 1712 
3 1708 1683 1749 
3 1749 1683 1716 
3 1834 1874 1816 
3 1730 1834 1816 
3 1721 1730 1816 
3 1721 1816 1769 
3 1715 1721 1769 
3 1779 1821 1808 
3 1890 1821 1863 
3 1821 1779 1863 
3 1925 1881 1920 
3 1920 1881 1890 
3 1920 1981 1962 
3 1916 1939 1920 
3 1976 1985 1962 
3 1981 1976 1962 
3 2020 2008 2005 
3 2020 2005 2049 
3 2049 2005 2019 
3 1985 1976 2002 
3 2002 2017 2028 
3 2017 2002 1976 
3 2002 2029 2021 
3 2002 2028 2029 
3 1418 1449 1461 
3 1449 1501 1480 
3 1480 1501 1573 
3 1551 1573 1705 
3 1674 1551 1705 
3 1674 1705 1837 
3 1837 1705 1851 
3 1837 1851 1909 
3 1851 1936 1909 
3 1480 1461 1449 
3 1993 1997 2040 
3 2040 1997 2008 
3 1403 1418 1421 
3 1231 1205 1202 
3 1326 1279 1333 
3 1333 1323 1353 
3 1260 1231 1279 
3 1285 1260 1279 
3 1285 1279 1326 
3 1129 1117 1142 
3 982 971 1005 
3 971 982 928 
3 1035 1005 1081 
3 1019 1005 1035 
3 1048 1019 1035 
3 1048 1035 1129 
3 1129 1035 1117 
3 912 919 928 
3 912 928 982 
3 894 819 824 
3 870 819 894 
3 1205 1142 1169 
3 1205 1169 1202 
3 979 878 907 
3 907 828 847 
3 828 825 847 
3 825 809 856 
3 856 809 855 
3 871 862 903 
3 855 809 786 
3 855 786 862 
3 881 865 818 
3 881 828 878 
3 1689 1721 1715 
3 1682 1690 1714 
3 1682 1714 1672 
3 1672 1714 1738 
3 1672 1738 1728 
3 1699 1728 1716 
3 1699 1672 1728 
3 1596 1712 1635 
3 1683 1712 1596 
3 1683 1669 1716 
3 1699 1716 1679 
3 1716 1669 1679 
3 1730 1782 1834 
3 1726 1779 1808 
3 1726 1808 1717 
3 1717 1808 1782 
3 1717 1782 1709 
3 1709 1782 1730 
3 1863 1779 1764 
3 1916 1920 1890 
3 1916 1890 1863 
3 1981 1920 1963 
3 1863 1886 1916 
3 1886 1939 1916 
3 1963 1920 1939 
3 1947 1939 1918 
3 1918 1939 1886 
3 1963 1939 1947 
3 1981 2017 1976 
3 2040 2008 2020 
3 2051 2019 2021 
3 2029 2051 2021 
3 1489 1573 1551 
3 1684 1551 1674 
3 1684 1674 1837 
3 1909 1936 1974 
3 1937 1909 1974 
3 1974 1936 2003 
3 1936 1993 1984 
3 2003 1936 1984 
3 1984 1993 2024 
3 2024 1993 2040 
3 1353 1328 1406 
3 1328 1403 1406 
3 1406 1403 1421 
3 1461 1421 1418 
3 1206 1205 1231 
3 1206 1231 1260 
3 1326 1333 1347 
3 1347 1333 1356 
3 1356 1333 1353 
3 1353 1406 1356 
3 1263 1260 1285 
3 1263 1285 1307 
3 1307 1285 1326 
3 1048 1129 1152 
3 1152 1129 1142 
3 1019 983 1005 
3 983 982 1005 
3 980 1019 1057 
3 1057 1019 1048 
3 1140 1048 1152 
3 960 915 912 
3 960 912 982 
3 915 879 912 
3 912 879 919 
3 879 853 919 
3 919 853 870 
3 819 805 824 
3 805 865 824 
3 1142 1205 1206 
3 878 828 907 
3 796 770 825 
3 770 774 825 
3 825 774 809 
3 881 818 828 
3 719 741 762 
3 733 743 762 
3 1689 1709 1721 
3 1664 1709 1689 
3 1664 1689 1668 
3 1668 1689 1715 
3 1721 1709 1730 
3 1668 1715 1690 
3 1662 1668 1690 
3 1662 1690 1682 
3 1642 1682 1672 
3 1633 1683 1596 
3 1669 1683 1633 
3 1726 1764 1779 
3 1793 1863 1764 
3 1981 1963 1967 
3 1947 1967 1963 
3 1863 1793 1886 
3 1948 1967 1947 
3 1947 1918 1948 
3 1813 1918 1886 
3 2017 1981 2007 
3 2010 1981 1967 
3 1981 2010 2007 
3 2060 2020 2049 
3 2060 2049 2067 
3 2067 2049 2019 
3 2065 2067 2019 
3 2065 2019 2051 
3 2065 2051 2029 
3 2017 2007 2030 
3 2030 2007 2010 
3 2028 2017 2030 
3 2029 2028 2048 
3 2028 2030 2048 
3 1489 1480 1573 
3 1488 1480 1489 
3 1580 1489 1551 
3 1580 1551 1684 
3 1638 1580 1684 
3 1638 1684 1752 
3 1684 1837 1752 
3 1752 1837 1909 
3 1877 1752 1909 
3 1877 1909 1937 
3 1937 1974 1995 
3 1995 1974 2003 
3 2003 1984 2024 
3 2057 2024 2040 
3 1464 1406 1421 
3 1464 1421 1461 
3 1192 1206 1228 
3 1228 1206 1260 
3 1228 1260 1263 
3 1351 1326 1347 
3 1236 1228 1263 
3 1236 1263 1307 
3 1307 1326 1301 
3 1152 1142 1206 
3 1140 1152 1173 
3 1173 1152 1192 
3 1152 1206 1192 
3 980 983 1019 
3 980 960 983 
3 983 960 982 
3 962 930 980 
3 930 960 980 
3 962 980 1018 
3 1018 980 1057 
3 1018 1057 1059 
3 1057 1048 1140 
3 1057 1140 1059 
3 1059 1140 1131 
3 1131 1140 1173 
3 890 915 960 
3 930 890 960 
3 879 854 853 
3 854 795 853 
3 853 819 870 
3 805 816 865 
3 828 796 825 
3 809 774 791 
3 809 791 786 
3 786 829 862 
3 865 816 818 
3 1670 1717 1709 
3 1670 1709 1664 
3 1644 1670 1664 
3 1644 1664 1650 
3 1650 1664 1668 
3 1642 1662 1682 
3 1645 1642 1672 
3 1645 1672 1699 
3 1621 1645 1699 
3 1621 1699 1679 
3 1579 1599 1633 
3 1669 1633 1599 
3 1599 1679 1669 
3 1706 1726 1717 
3 1706 1717 1670 
3 1719 1764 1706 
3 1764 1726 1706 
3 1719 1793 1764 
3 1948 1969 1967 
3 2010 1967 1969 
3 1745 1886 1720 
3 1886 1793 1720 
3 1813 1886 1745 
3 1918 1906 1948 
3 1918 1813 1807 
3 1807 1813 1745 
3 2010 1969 2006 
3 2057 2040 2060 
3 2060 2040 2020 
3 2010 2006 2030 
3 2048 2030 2050 
3 2030 2052 2050 
3 2030 2006 2052 
3 2073 2029 2048 
3 2073 2065 2029 
3 1464 1461 1480 
3 1488 1464 1480 
3 1488 1489 1580 
3 1477 1488 1580 
3 1556 1477 1580 
3 1556 1580 1638 
3 1661 1556 1638 
3 1661 1638 1777 
3 1777 1638 1752 
3 1777 1752 1877 
3 1842 1777 1877 
3 1842 1877 1942 
3 1942 1877 1937 
3 1942 1937 1972 
3 1972 1937 1995 
3 2003 2024 2027 
3 2003 2027 1995 
3 2027 2024 2057 
3 1301 1326 1351 
3 1399 1347 1356 
3 1301 1351 1359 
3 1351 1347 1399 
3 1356 1406 1450 
3 1450 1406 1464 
3 1399 1356 1450 
3 1213 1228 1236 
3 1236 1307 1268 
3 1268 1301 1325 
3 1325 1301 1359 
3 1173 1192 1175 
3 1175 1192 1228 
3 948 930 962 
3 948 962 1036 
3 962 1018 1036 
3 948 933 930 
3 896 909 930 
3 933 896 930 
3 909 890 930 
3 1036 1018 1083 
3 1083 1018 1059 
3 1083 1059 1101 
3 1101 1059 1131 
3 1163 1173 1175 
3 1131 1173 1163 
3 890 854 915 
3 915 854 879 
3 890 860 854 
3 854 812 795 
3 795 793 819 
3 795 819 853 
3 793 739 819 
3 819 739 805 
3 739 713 805 
3 796 767 770 
3 770 767 746 
3 770 746 774 
3 818 816 783 
3 1673 1706 1670 
3 1644 1673 1670 
3 1646 1673 1644 
3 1614 1644 1650 
3 1650 1668 1662 
3 1598 1662 1642 
3 1645 1598 1642 
3 1585 1621 1679 
3 1585 1679 1599 
3 1579 1585 1599 
3 1673 1719 1706 
3 1720 1793 1719 
3 1720 1719 1680 
3 1680 1719 1673 
3 1948 1906 1970 
3 1948 1970 1969 
3 1807 1906 1918 
3 1703 1807 1745 
3 1970 1964 1969 
3 2064 2057 2075 
3 2057 2060 2075 
3 2075 2060 2067 
3 2067 2065 2082 
3 2082 2065 2073 
3 2073 2048 2068 
3 2068 2048 2050 
3 2006 2035 2052 
3 2059 2050 2052 
3 2059 2068 2050 
3 2045 2059 2052 
3 2045 2052 2035 
3 1450 1488 1477 
3 1456 1477 1556 
3 1548 1556 1661 
3 1591 1548 1661 
3 1661 1777 1842 
3 1943 1842 1942 
3 1942 1972 2012 
3 2012 1972 2042 
3 1972 1995 2042 
3 2027 2042 1995 
3 2042 2027 2058 
3 2058 2027 2064 
3 2027 2057 2064 
3 1175 1228 1213 
3 1407 1399 1450 
3 1359 1351 1377 
3 1377 1351 1399 
3 1213 1236 1250 
3 1250 1236 1268 
3 1268 1307 1301 
3 1268 1325 1319 
3 1319 1325 1359 
3 989 948 1036 
3 989 1036 1016 
3 1036 1083 1044 
3 1016 1036 1044 
3 933 948 949 
3 949 948 989 
3 896 933 949 
3 882 896 843 
3 843 896 888 
3 888 896 910 
3 896 949 910 
3 882 909 896 
3 909 860 890 
3 1044 1083 1101 
3 1101 1131 1163 
3 1166 1163 1224 
3 1163 1175 1224 
3 808 860 909 
3 860 812 854 
3 808 812 860 
3 808 797 812 
3 812 797 795 
3 793 768 739 
3 816 764 783 
3 818 796 828 
3 818 783 796 
3 774 746 760 
3 791 774 760 
3 760 779 791 
3 791 779 786 
3 829 786 773 
3 786 779 781 
3 1646 1680 1673 
3 1593 1646 1644 
3 1593 1644 1614 
3 1577 1593 1614 
3 1577 1614 1607 
3 1614 1650 1607 
3 1607 1650 1662 
3 1607 1662 1598 
3 1561 1607 1598 
3 1561 1598 1583 
3 1583 1598 1645 
3 1583 1645 1559 
3 1559 1645 1621 
3 1585 1559 1621 
3 1585 1579 1550 
3 1951 1970 1906 
3 1964 1970 1951 
3 1703 1745 1686 
3 1686 1745 1720 
3 1647 1686 1720 
3 1647 1720 1680 
3 1732 1807 1703 
3 2006 1969 1964 
3 2006 1964 2035 
3 2074 2064 2075 
3 2075 2067 2084 
3 2084 2067 2082 
3 2084 2082 2073 
3 2085 2068 2079 
3 2068 2085 2073 
3 2059 2079 2068 
3 2000 2035 1964 
3 2069 2059 2045 
3 2059 2069 2079 
3 2038 2069 2045 
3 2038 2045 2032 
3 2032 2045 2035 
3 1450 1464 1488 
3 1456 1450 1477 
3 1548 1456 1556 
3 1481 1456 1548 
3 1481 1548 1591 
3 1481 1591 1486 
3 1486 1591 1625 
3 1625 1591 1661 
3 1625 1661 1842 
3 1942 2012 1999 
3 1943 1942 1978 
3 1978 1942 1999 
3 2012 2042 2034 
3 1999 2012 2034 
3 2058 2064 2074 
3 1377 1399 1407 
3 1360 1359 1377 
3 1428 1360 1377 
3 1456 1407 1450 
3 1224 1213 1250 
3 1224 1250 1256 
3 1256 1250 1268 
3 1256 1268 1319 
3 1360 1319 1359 
3 1224 1175 1213 
3 1016 1044 1055 
3 1055 1044 1078 
3 1044 1101 1078 
3 910 949 940 
3 940 949 989 
3 808 909 882 
3 843 827 823 
3 808 843 823 
3 840 843 888 
3 843 840 827 
3 843 808 882 
3 885 840 888 
3 885 888 927 
3 927 888 910 
3 927 910 940 
3 1101 1163 1126 
3 1153 1166 1176 
3 1166 1224 1176 
3 797 776 795 
3 795 768 793 
3 776 768 795 
3 816 805 752 
3 816 752 764 
3 739 639 713 
3 805 713 752 
3 783 767 796 
3 783 764 767 
3 697 673 767 
3 767 673 746 
3 746 673 694 
3 760 729 779 
3 746 729 760 
3 746 694 706 
3 746 706 729 
3 786 781 773 
3 1647 1680 1626 
3 1626 1680 1646 
3 1626 1646 1593 
3 1584 1593 1577 
3 1561 1577 1607 
3 1564 1577 1561 
3 1558 1564 1561 
3 1559 1585 1550 
3 1848 1807 1732 
3 1848 1906 1807 
3 1951 1906 1848 
3 1686 1647 1619 
3 1619 1647 1626 
3 1794 1848 1732 
3 1698 1794 1732 
3 1732 1703 1660 
3 1698 1732 1649 
3 1732 1660 1649 
3 1660 1703 1686 
3 1660 1686 1619 
3 2014 2035 2000 
3 1980 2014 2000 
3 1961 1980 2000 
3 1961 2000 1964 
3 2058 2074 2076 
3 2074 2075 2084 
3 2086 2084 2073 
3 2069 2072 2079 
3 2072 2080 2079 
3 2079 2080 2085 
3 2081 2085 2080 
3 2014 2032 2035 
3 2046 2072 2069 
3 2046 2069 2038 
3 2085 2086 2073 
3 1407 1456 1453 
3 1554 1486 1625 
3 1485 1486 1554 
3 1625 1842 1725 
3 1725 1842 1943 
3 1725 1943 1841 
3 1841 1943 1978 
3 2042 2058 2034 
3 2034 2058 2053 
3 2053 2058 2076 
3 1428 1407 1453 
3 1428 1377 1407 
3 1360 1428 1378 
3 1176 1224 1211 
3 1211 1224 1256 
3 1256 1319 1265 
3 1320 1319 1360 
3 1265 1319 1320 
3 1003 989 1016 
3 1003 1016 1021 
3 1021 1016 1055 
3 1021 1055 1073 
3 1055 1078 1073 
3 1078 1101 1126 
3 940 989 1003 
3 823 827 756 
3 823 756 766 
3 808 823 766 
3 872 885 927 
3 927 940 936 
3 872 927 892 
3 892 927 936 
3 1126 1163 1166 
3 1153 1176 1151 
3 808 766 797 
3 768 695 739 
3 739 695 639 
3 713 700 752 
3 700 697 764 
3 752 700 764 
3 764 697 767 
3 625 646 673 
3 697 625 673 
3 673 646 694 
3 694 646 658 
3 694 658 706 
3 729 781 779 
3 729 706 720 
3 1589 1593 1584 
3 1589 1584 1564 
3 1584 1577 1564 
3 1540 1558 1561 
3 1540 1561 1583 
3 1514 1583 1559 
3 1550 1514 1559 
3 1856 1926 1848 
3 1794 1856 1848 
3 1926 1951 1848 
3 1961 1964 1926 
3 1926 1964 1951 
3 1600 1619 1626 
3 1600 1626 1589 
3 1589 1626 1593 
3 1724 1794 1698 
3 1724 1698 1641 
3 1641 1698 1649 
3 1649 1660 1605 
3 1605 1660 1619 
3 1641 1649 1605 
3 2013 2032 2014 
3 2013 2014 1994 
3 1994 2014 1980 
3 1994 1980 1952 
3 1952 1980 1961 
3 1952 1961 1917 
3 1917 1961 1926 
3 2053 2076 2070 
3 2076 2074 2084 
3 2070 2076 2083 
3 2076 2084 2083 
3 2083 2084 2086 
3 2081 2086 2085 
3 2063 2080 2072 
3 2071 2077 2080 
3 2077 2081 2080 
3 2056 2063 2072 
3 2046 2056 2072 
3 2036 2046 2038 
3 2026 2036 2038 
3 2026 2038 2013 
3 2038 2032 2013 
3 1481 1453 1456 
3 1475 1481 1486 
3 1475 1394 1481 
3 1394 1453 1481 
3 1475 1486 1485 
3 1999 2034 2044 
3 2044 1978 1999 
3 2044 2053 2070 
3 2044 2034 2053 
3 1320 1360 1348 
3 1348 1360 1378 
3 1211 1256 1265 
3 1252 1211 1265 
3 1252 1265 1320 
3 1009 1003 1021 
3 1009 1021 1053 
3 1053 1021 1073 
3 1053 1073 1068 
3 1073 1078 1084 
3 1073 1084 1068 
3 1084 1078 1126 
3 936 940 958 
3 958 940 1003 
3 885 841 840 
3 841 885 872 
3 778 827 840 
3 756 827 734 
3 827 778 734 
3 841 778 840 
3 756 709 766 
3 756 734 709 
3 857 872 892 
3 950 936 958 
3 921 892 936 
3 921 936 950 
3 1126 1166 1153 
3 1147 1126 1153 
3 1084 1126 1147 
3 1151 1176 1200 
3 1176 1211 1200 
3 1147 1151 1190 
3 1151 1200 1203 
3 1151 1203 1190 
3 766 738 797 
3 797 738 691 
3 797 691 776 
3 776 703 768 
3 703 695 768 
3 639 700 713 
3 700 661 697 
3 697 661 625 
3 646 564 658 
3 729 720 781 
3 1572 1600 1589 
3 1572 1589 1535 
3 1535 1589 1546 
3 1546 1589 1564 
3 1539 1546 1564 
3 1539 1564 1558 
3 1539 1558 1529 
3 1529 1558 1540 
3 1540 1583 1514 
3 1496 1540 1514 
3 1917 1926 1856 
3 1840 1917 1856 
3 1840 1856 1794 
3 1840 1794 1724 
3 1605 1619 1600 
3 1605 1600 1572 
3 1756 1840 1724 
3 1756 1724 1663 
3 1663 1724 1641 
3 1663 1641 1597 
3 1605 1572 1587 
3 1641 1605 1587 
3 2009 2026 2013 
3 1996 2009 2013 
3 1996 2013 1994 
3 1968 1996 1994 
3 1938 1952 1917 
3 1938 1917 1840 
3 2070 2083 2078 
3 2083 2086 2078 
3 2078 2086 2081 
3 2062 2063 2047 
3 2063 2062 2071 
3 2047 2063 2056 
3 2063 2071 2080 
3 2071 2066 2077 
3 2077 2066 2078 
3 2077 2078 2081 
3 2031 2047 2056 
3 2031 2056 2039 
3 2039 2056 2046 
3 2039 2046 2036 
3 2018 2036 2026 
3 2018 2039 2036 
3 1394 1428 1453 
3 1420 1394 1475 
3 1420 1475 1455 
3 1455 1475 1485 
3 1554 1625 1725 
3 1549 1554 1725 
3 1485 1554 1516 
3 1516 1554 1549 
3 1754 1978 1933 
3 1841 1978 1754 
3 1971 1933 1978 
3 2044 1971 1978 
3 2044 2004 1971 
3 2054 2044 2070 
3 1378 1428 1394 
3 1320 1348 1368 
3 1348 1378 1368 
3 1200 1211 1252 
3 1200 1252 1241 
3 1241 1252 1255 
3 1252 1320 1313 
3 1313 1320 1331 
3 1001 1009 1053 
3 1009 958 1003 
3 1028 1053 1071 
3 1053 1068 1071 
3 1068 1097 1071 
3 766 709 738 
3 734 778 754 
3 734 754 704 
3 709 734 704 
3 841 872 845 
3 845 872 857 
3 857 892 921 
3 845 857 834 
3 834 857 921 
3 950 958 975 
3 975 958 1009 
3 918 950 975 
3 921 950 918 
3 1147 1153 1151 
3 776 691 714 
3 661 549 625 
3 625 549 646 
3 646 549 564 
3 658 564 611 
3 706 658 655 
3 706 655 688 
3 720 706 688 
3 781 735 773 
3 781 720 735 
3 720 688 735 
3 1587 1572 1533 
3 1533 1572 1535 
3 1520 1546 1539 
3 1520 1539 1526 
3 1526 1539 1529 
3 1526 1529 1496 
3 1496 1529 1540 
3 1878 1938 1840 
3 1878 1840 1796 
3 1796 1840 1756 
3 1695 1756 1663 
3 1663 1597 1595 
3 1597 1641 1587 
3 1597 1587 1557 
3 1595 1597 1557 
3 2018 2026 2009 
3 1990 2018 2009 
3 1990 2009 1996 
3 1990 1996 1987 
3 1968 1994 1952 
3 1968 1952 1931 
3 1931 1952 1929 
3 1929 1952 1938 
3 1929 1938 1878 
3 2054 2070 2066 
3 2066 2070 2078 
3 2037 2061 2062 
3 2037 2062 2047 
3 2062 2061 2071 
3 2061 2066 2071 
3 2043 2054 2066 
3 2061 2055 2066 
3 2055 2043 2066 
3 2041 2047 2031 
3 2016 2031 2039 
3 2016 2039 2018 
3 1989 2016 2018 
3 1455 1485 1516 
3 1754 1725 1841 
3 2044 2054 2004 
3 2004 2054 2043 
3 1331 1320 1368 
3 1390 1378 1394 
3 1378 1390 1368 
3 1200 1241 1203 
3 1255 1252 1313 
3 1001 1053 1028 
3 975 1009 1001 
3 1028 1071 1017 
3 1097 1017 1071 
3 1017 1097 1046 
3 1068 1084 1147 
3 1068 1147 1134 
3 1068 1134 1097 
3 738 709 691 
3 747 754 778 
3 747 778 841 
3 754 747 710 
3 704 754 710 
3 709 704 654 
3 709 654 691 
3 834 895 864 
3 834 921 895 
3 918 975 932 
3 895 921 918 
3 895 918 891 
3 891 918 932 
3 1147 1190 1134 
3 776 714 703 
3 703 714 695 
3 695 714 641 
3 695 641 639 
3 700 639 600 
3 639 641 600 
3 700 600 661 
3 661 600 575 
3 661 575 549 
3 575 524 549 
3 549 524 490 
3 658 611 655 
3 1557 1587 1533 
3 1520 1535 1546 
3 1508 1520 1526 
3 1902 1929 1878 
3 1771 1796 1756 
3 1771 1756 1695 
3 1771 1695 1727 
3 1727 1695 1592 
3 1695 1663 1595 
3 1592 1695 1595 
3 1595 1557 1536 
3 1536 1557 1533 
3 1973 1989 2018 
3 1973 2018 1990 
3 1973 1990 1987 
3 1987 1996 1968 
3 1945 1987 1968 
3 1945 1968 1941 
3 1941 1968 1931 
3 1931 1929 1902 
3 2033 2037 2041 
3 2041 2037 2047 
3 2023 2055 2037 
3 2037 2055 2061 
3 2022 2033 2041 
3 2022 2041 2031 
3 1998 2022 2031 
3 1998 2031 2016 
3 1991 1998 2016 
3 1989 1991 2016 
3 1956 1991 1989 
3 1944 1956 1989 
3 1944 1989 1973 
3 1390 1394 1420 
3 1549 1725 1603 
3 1603 1725 1754 
3 1696 1754 1933 
3 2043 2025 2004 
3 1336 1331 1368 
3 1203 1241 1221 
3 1241 1255 1221 
3 1255 1313 1254 
3 1336 1313 1331 
3 974 1028 1017 
3 975 1001 1028 
3 975 1028 974 
3 974 1017 978 
3 747 841 798 
3 798 841 845 
3 798 845 815 
3 815 845 834 
3 660 704 710 
3 710 747 676 
3 704 660 637 
3 654 704 637 
3 815 834 821 
3 821 834 864 
3 864 895 891 
3 864 891 875 
3 974 932 975 
3 932 974 934 
3 891 932 934 
3 891 934 913 
3 691 656 714 
3 714 631 641 
3 631 544 641 
3 641 544 539 
3 600 641 567 
3 641 539 567 
3 600 568 575 
3 568 524 575 
3 490 524 451 
3 564 549 490 
3 568 470 524 
3 524 470 451 
3 564 490 611 
3 655 611 565 
3 611 503 565 
3 688 655 632 
3 735 688 727 
3 688 632 651 
3 688 651 727 
3 1533 1535 1517 
3 1535 1520 1517 
3 1508 1517 1520 
3 1931 1902 1905 
3 1905 1902 1852 
3 1852 1902 1830 
3 1830 1902 1878 
3 1878 1796 1771 
3 1830 1878 1771 
3 1727 1830 1771 
3 1592 1595 1571 
3 1571 1595 1509 
3 1509 1595 1536 
3 1536 1533 1517 
3 1924 1944 1973 
3 1935 1924 1973 
3 1946 1987 1945 
3 1931 1934 1941 
3 1934 1931 1923 
3 1923 1931 1905 
3 2015 2037 2033 
3 2015 2023 2037 
3 1986 2011 2023 
3 1986 2023 2015 
3 2023 2011 2055 
3 2055 2025 2043 
3 1983 2033 2022 
3 1966 1983 2022 
3 1966 2022 1998 
3 1955 1966 1998 
3 1991 1955 1998 
3 1868 1991 1956 
3 1889 1868 1956 
3 1889 1956 1944 
3 1510 1516 1549 
3 1437 1455 1516 
3 1603 1754 1696 
3 1880 1843 1933 
3 1880 1933 1971 
3 2025 1971 2004 
3 2025 1880 1971 
3 1221 1255 1254 
3 1254 1313 1336 
3 978 1017 1046 
3 1097 1100 1046 
3 1100 1097 1134 
3 656 654 637 
3 654 656 691 
3 747 798 769 
3 660 710 622 
3 637 660 608 
3 660 622 608 
3 821 875 813 
3 875 821 864 
3 714 656 631 
3 631 656 604 
3 600 567 568 
3 567 494 568 
3 539 494 567 
3 451 470 406 
3 451 406 502 
3 456 470 568 
3 490 502 611 
3 611 502 503 
3 632 655 565 
3 565 503 466 
3 1536 1517 1509 
3 1509 1517 1502 
3 1502 1517 1508 
3 1502 1508 1526 
3 1831 1923 1905 
3 1831 1905 1852 
3 1831 1852 1809 
3 1809 1852 1830 
3 1809 1830 1727 
3 1844 1944 1924 
3 1819 1844 1924 
3 1819 1924 1935 
3 1946 1935 1973 
3 1946 1973 1987 
3 1935 1946 1932 
3 1932 1946 1945 
3 1932 1945 1934 
3 1934 1945 1941 
3 1885 1894 1934 
3 1885 1934 1923 
3 1894 1932 1934 
3 1975 1986 2015 
3 1982 1975 2015 
3 1982 2015 2033 
3 1910 1949 1986 
3 1910 1986 1975 
3 1986 1949 1979 
3 1986 1979 2011 
3 2011 2025 2055 
3 1979 2025 2011 
3 1922 1983 1966 
3 1922 1982 1983 
3 1983 1982 2033 
3 1891 1966 1955 
3 1868 1891 1955 
3 1868 1955 1991 
3 1767 1891 1868 
3 1761 1767 1868 
3 1761 1868 1889 
3 1761 1889 1844 
3 1844 1889 1944 
3 1510 1437 1516 
3 1537 1510 1549 
3 1603 1537 1549 
3 1843 1696 1933 
3 1959 1880 2025 
3 934 974 978 
3 637 557 656 
3 769 798 815 
3 676 747 769 
3 676 622 710 
3 619 622 676 
3 637 608 557 
3 622 619 589 
3 608 622 589 
3 789 815 821 
3 789 821 813 
3 913 875 891 
3 631 604 544 
3 539 514 494 
3 544 514 539 
3 544 459 514 
3 604 530 544 
3 530 459 544 
3 502 406 266 
3 490 451 502 
3 494 456 568 
3 470 456 406 
3 502 345 503 
3 503 345 438 
3 565 466 506 
3 632 565 523 
3 565 506 523 
3 503 438 466 
3 466 438 415 
3 506 466 457 
3 466 415 457 
3 523 651 632 
3 1850 1923 1831 
3 1812 1831 1809 
3 1850 1831 1812 
3 1760 1761 1844 
3 1760 1844 1819 
3 1655 1760 1819 
3 1655 1819 1763 
3 1763 1819 1876 
3 1876 1819 1935 
3 1876 1935 1932 
3 1876 1932 1894 
3 1803 1894 1885 
3 1803 1885 1838 
3 1838 1885 1923 
3 1854 1876 1894 
3 1928 1975 1982 
3 1922 1928 1982 
3 1733 1861 1910 
3 1910 1861 1949 
3 1799 1733 1910 
3 1799 1910 1928 
3 1928 1910 1975 
3 1959 2025 1979 
3 1949 1959 1979 
3 1775 1928 1922 
3 1775 1922 1891 
3 1891 1922 1966 
3 1765 1775 1891 
3 1765 1891 1767 
3 1692 1765 1767 
3 1634 1692 1767 
3 1688 1634 1767 
3 1688 1767 1761 
3 1627 1688 1761 
3 1627 1761 1666 
3 1666 1761 1760 
3 1482 1437 1510 
3 1537 1482 1510 
3 1639 1537 1603 
3 1639 1603 1696 
3 1843 1639 1696 
3 1801 1630 1843 
3 1801 1843 1880 
3 1855 1801 1880 
3 1855 1880 1959 
3 656 557 604 
3 789 769 815 
3 769 789 742 
3 676 769 728 
3 557 608 495 
3 589 619 559 
3 728 769 742 
3 789 813 777 
3 813 875 826 
3 826 875 913 
3 530 439 459 
3 494 514 456 
3 514 365 287 
3 456 514 287 
3 502 266 345 
3 406 296 266 
3 266 296 219 
3 266 219 267 
3 345 266 267 
3 438 345 415 
3 474 506 457 
3 523 506 474 
3 415 308 275 
3 385 415 275 
3 415 385 457 
3 1838 1923 1850 
3 1766 1850 1812 
3 1838 1850 1766 
3 1666 1760 1665 
3 1665 1760 1655 
3 1604 1665 1655 
3 1763 1876 1854 
3 1655 1763 1681 
3 1763 1854 1803 
3 1681 1763 1803 
3 1854 1894 1803 
3 1609 1677 1733 
3 1609 1733 1694 
3 1733 1677 1861 
3 1694 1733 1799 
3 1861 1677 1855 
3 1861 1855 1949 
3 1694 1799 1928 
3 1855 1959 1949 
3 1606 1694 1775 
3 1606 1775 1654 
3 1775 1694 1928 
3 1654 1775 1765 
3 1654 1765 1692 
3 1588 1654 1692 
3 1634 1588 1692 
3 1555 1588 1634 
3 1627 1555 1634 
3 1627 1634 1688 
3 1563 1555 1627 
3 1563 1627 1562 
3 1562 1627 1666 
3 1562 1666 1665 
3 1432 1437 1482 
3 1432 1482 1521 
3 1521 1482 1537 
3 1521 1537 1639 
3 1630 1639 1843 
3 1581 1521 1639 
3 1581 1639 1630 
3 1691 1630 1801 
3 1691 1801 1855 
3 1677 1691 1855 
3 557 495 530 
3 557 530 604 
3 742 789 717 
3 495 439 530 
3 619 676 585 
3 559 619 585 
3 559 585 496 
3 608 589 430 
3 585 676 728 
3 585 728 668 
3 728 742 668 
3 668 742 717 
3 717 789 777 
3 459 365 514 
3 365 459 404 
3 459 439 404 
3 365 404 324 
3 365 324 287 
3 456 287 333 
3 406 333 296 
3 267 219 259 
3 345 267 259 
3 345 259 415 
3 456 333 406 
3 415 259 308 
3 523 474 481 
3 259 191 308 
3 308 183 275 
3 275 183 202 
3 275 202 385 
3 457 385 412 
3 474 457 453 
3 412 453 457 
3 474 453 481 
3 651 523 640 
3 727 651 640 
3 1803 1838 1623 
3 1623 1838 1766 
3 1604 1562 1665 
3 1490 1562 1604 
3 1490 1604 1538 
3 1604 1655 1541 
3 1538 1604 1541 
3 1541 1655 1566 
3 1566 1655 1681 
3 1609 1532 1677 
3 1590 1609 1694 
3 1568 1691 1677 
3 1532 1568 1677 
3 1606 1590 1694 
3 1504 1495 1606 
3 1495 1590 1606 
3 1504 1606 1574 
3 1574 1606 1654 
3 1574 1654 1588 
3 1515 1574 1588 
3 1515 1588 1555 
3 1515 1555 1563 
3 1498 1563 1562 
3 1416 1432 1503 
3 1503 1432 1521 
3 1503 1521 1581 
3 1543 1581 1630 
3 1543 1503 1581 
3 1543 1630 1691 
3 1543 1691 1568 
3 717 777 749 
3 495 608 430 
3 439 495 422 
3 585 601 496 
3 589 444 430 
3 444 589 559 
3 559 496 444 
3 669 585 668 
3 668 717 692 
3 692 717 711 
3 711 717 749 
3 777 813 748 
3 813 826 748 
3 404 439 422 
3 404 422 324 
3 287 324 244 
3 333 287 201 
3 333 201 296 
3 296 201 186 
3 296 186 219 
3 219 186 113 
3 219 191 259 
3 113 191 219 
3 523 481 640 
3 308 191 183 
3 191 139 183 
3 139 117 183 
3 183 117 241 
3 202 183 241 
3 412 385 202 
3 481 453 497 
3 453 412 497 
3 1623 1681 1803 
3 1498 1562 1490 
3 1532 1483 1568 
3 1495 1532 1609 
3 1495 1609 1590 
3 1483 1543 1568 
3 1447 1495 1504 
3 1478 1447 1504 
3 1478 1504 1574 
3 1439 1466 1495 
3 1447 1439 1495 
3 1466 1532 1495 
3 1479 1478 1574 
3 1479 1574 1515 
3 1440 1515 1467 
3 1440 1479 1515 
3 1467 1515 1563 
3 1467 1563 1498 
3 1470 1416 1503 
3 1543 1470 1503 
3 1483 1470 1543 
3 749 777 748 
3 495 368 422 
3 585 669 601 
3 598 601 669 
3 496 601 483 
3 496 483 391 
3 444 496 391 
3 601 598 483 
3 692 711 680 
3 422 368 239 
3 324 422 239 
3 324 165 244 
3 324 239 165 
3 287 244 201 
3 201 244 157 
3 244 165 157 
3 186 201 157 
3 191 113 131 
3 131 139 191 
3 241 222 305 
3 202 241 305 
3 412 202 357 
3 1466 1427 1483 
3 1483 1433 1470 
3 1427 1433 1483 
3 1466 1483 1532 
3 1400 1439 1447 
3 1400 1447 1478 
3 1400 1478 1479 
3 1439 1393 1466 
3 1393 1427 1466 
3 1440 1422 1479 
3 711 749 748 
3 495 430 368 
3 669 668 598 
3 430 444 297 
3 368 430 297 
3 391 483 447 
3 444 391 297 
3 297 391 326 
3 483 598 560 
3 680 711 647 
3 239 368 227 
3 368 281 269 
3 227 368 269 
3 165 174 99 
3 165 99 157 
3 186 69 113 
3 113 69 81 
3 113 81 131 
3 131 81 139 
3 139 81 58 
3 139 58 117 
3 117 58 44 
3 117 44 86 
3 241 117 86 
3 241 86 111 
3 222 241 111 
3 357 202 305 
3 222 111 167 
3 222 167 313 
3 305 222 313 
3 412 357 497 
3 1422 1400 1479 
3 598 668 692 
3 368 297 281 
3 447 483 469 
3 483 560 469 
3 326 391 358 
3 391 447 358 
3 297 326 262 
3 560 543 469 
3 598 692 560 
3 560 692 605 
3 692 680 605 
3 680 647 605 
3 605 647 540 
3 540 647 609 
3 647 711 748 
3 281 297 242 
3 281 242 269 
3 227 269 221 
3 269 242 221 
3 239 227 165 
3 165 227 174 
3 157 99 100 
3 186 157 100 
3 174 108 99 
3 99 108 70 
3 99 70 100 
3 186 100 69 
3 69 100 55 
3 69 55 81 
3 44 58 16 
3 86 44 65 
3 44 16 47 
3 65 44 47 
3 86 65 111 
3 111 65 53 
3 111 53 167 
3 313 167 216 
3 305 313 374 
3 313 216 362 
3 374 313 362 
3 379 357 374 
3 374 357 305 
3 497 357 379 
3 543 560 605 
3 358 447 376 
3 326 358 327 
3 327 358 341 
3 358 376 341 
3 242 297 262 
3 326 327 228 
3 262 326 228 
3 242 262 213 
3 262 228 238 
3 213 262 238 
3 543 605 537 
3 543 537 461 
3 469 543 461 
3 605 540 537 
3 221 242 213 
3 227 221 213 
3 174 227 213 
3 174 213 85 
3 174 85 108 
3 100 70 55 
3 81 55 34 
3 81 34 58 
3 34 22 58 
3 58 22 16 
3 65 47 53 
3 53 95 167 
3 167 95 216 
3 216 95 199 
3 362 216 322 
3 216 199 322 
3 379 374 419 
3 374 362 419 
3 447 469 376 
3 341 376 405 
3 213 238 159 
3 228 327 255 
3 238 228 196 
3 159 238 196 
3 537 540 492 
3 461 537 492 
3 376 469 405 
3 469 461 405 
3 492 540 609 
3 492 609 586 
3 213 159 85 
3 70 108 28 
3 70 28 55 
3 108 85 64 
3 28 108 64 
3 34 14 22 
3 14 9 22 
3 16 22 12 
3 47 16 24 
3 16 12 24 
3 95 53 115 
3 53 46 115 
3 47 46 53 
3 47 24 46 
3 199 95 115 
3 199 115 149 
3 199 149 205 
3 322 199 205 
3 362 322 398 
3 398 322 314 
3 322 205 314 
3 419 362 398 
3 327 341 255 
3 341 405 343 
3 405 423 343 
3 423 405 461 
3 159 196 103 
3 228 255 177 
3 196 228 177 
3 423 461 492 
3 85 159 63 
3 64 85 63 
3 64 63 35 
3 64 35 28 
3 55 28 34 
3 34 28 14 
3 14 7 9 
3 28 7 14 
3 22 4 12 
3 22 9 4 
3 115 46 84 
3 84 46 88 
3 115 84 149 
3 149 84 106 
3 149 106 130 
3 205 149 130 
3 398 314 355 
3 426 398 383 
3 419 398 426 
3 255 341 291 
3 291 341 343 
3 291 343 351 
3 159 103 63 
3 103 196 141 
3 141 196 177 
3 63 103 79 
3 103 141 105 
3 79 103 105 
3 177 255 291 
3 177 291 234 
3 492 586 462 
3 423 492 436 
3 436 492 462 
3 63 79 35 
3 28 35 7 
3 4 0 12 
3 7 26 2 
3 9 7 2 
3 9 2 4 
3 12 13 24 
3 24 13 30 
3 12 0 3 
3 12 3 13 
3 46 24 52 
3 24 30 52 
3 46 52 88 
3 88 52 66 
3 84 88 106 
3 106 88 118 
3 106 118 176 
3 106 176 130 
3 205 130 198 
3 314 205 198 
3 130 176 156 
3 383 398 355 
3 314 198 288 
3 314 288 355 
3 351 343 436 
3 343 423 436 
3 141 177 155 
3 105 141 155 
3 105 128 98 
3 79 105 32 
3 105 155 128 
3 32 105 98 
3 155 177 234 
3 462 586 574 
3 410 436 462 
3 35 26 7 
3 35 79 26 
3 2 0 4 
3 26 19 2 
3 13 3 27 
3 30 13 27 
3 30 27 52 
3 66 52 75 
3 66 75 134 
3 88 66 118 
